# .PCD v0.7 - Point Cloud Data file format
VERSION 0.7
FIELDS x y z rgba
SIZE 4 4 4 4
TYPE F F F U
COUNT 1 1 1 1
WIDTH 988
HEIGHT 1
VIEWPOINT 0 0 0 1 0 0 0
POINTS 988
DATA ascii
-0.41492367 -0.19918013 -0.00015258789 4284329216
-0.7919178 -0.14438057 -0.00015258789 4284329216
-0.79089451 -0.091200352 -0.00015258789 4284329216
-0.74466801 -0.14752626 -0.00015258789 4284329216
-0.74378014 -0.08784008 -0.00015258789 4284329216
-0.79547215 -0.040306091 -3.3378601e-05 4284329216
-0.80433083 0.017967224 -3.3378601e-05 4284329216
-0.73962212 -0.030126095 -3.3378601e-05 4284329216
-0.73329163 0.018149853 -3.3378601e-05 4284329216
-0.69301224 -0.14690733 -3.3378601e-05 4284329216
-0.68467999 -0.083463669 -3.3378601e-05 4284329216
-0.63070011 -0.13964176 -3.3378601e-05 4284329216
-0.62296295 -0.092205524 -3.3378601e-05 4284329216
-0.68424129 -0.043029785 -3.3378601e-05 4284329216
-0.68080235 0.013043404 -0.00015258789 4284329216
-0.62926579 -0.046009064 -3.3378601e-05 4284329216
-0.62516785 0.0200634 -0.00015258789 4284329216
-0.79109764 0.066855907 -0.00015258789 4284329216
-0.78920841 0.12530088 -3.3378601e-05 4284329216
-0.74231052 0.071014881 -0.00015258789 4284329216
-0.7308569 0.13517094 -3.3378601e-05 4284329216
-0.79461956 0.19311476 -3.3378601e-05 4284329216
-0.80521393 0.24372721 -3.3378601e-05 4284329216
-0.73937511 0.18245077 -0.00015258789 4284329216
-0.75649548 0.24285221 -0.00015258789 4284329216
-0.68721867 0.083280563 -0.00015258789 4284329216
-0.6874218 0.12726212 -3.3378601e-05 4284329216
-0.63327312 0.066745281 -0.00015258789 4284329216
-0.62700176 0.1340971 -3.3378601e-05 4284329216
-0.68538952 0.19677877 -3.3378601e-05 4284329216
-0.67909336 0.24888659 -0.00015258789 4284329216
-0.63256836 0.19207335 -0.00015258789 4284329216
-0.62919998 0.23672962 -0.00015258789 4284329216
-0.57441235 -0.15190172 -3.3378601e-05 4284329216
-0.57206726 -0.092154026 -3.3378601e-05 4284329216
-0.52466297 -0.14982367 -0.00015258789 4284329216
-0.52353287 -0.094548225 -3.3378601e-05 4284329216
-0.57510757 -0.041363716 -3.3378601e-05 4284329216
-0.5685091 0.024858952 -3.3378601e-05 4284329216
-0.52103424 -0.036431789 -3.3378601e-05 4284329216
-0.51809788 0.012531757 -3.3378601e-05 4284329216
-0.46234035 -0.15623426 -0.00015258789 4284329216
-0.4585495 -0.10259867 -0.00015258789 4284329216
-0.40564728 -0.15038013 -3.3378601e-05 4284329216
-0.4001255 -0.08990097 -0.00015258789 4284329216
-0.46528435 -0.034749508 -0.00015258789 4284329216
-0.4631834 0.020424843 -3.3378601e-05 4284329216
-0.40013313 -0.035571098 -3.3378601e-05 4284329216
-0.40384388 0.017216682 -3.3378601e-05 4284329216
-0.57530117 0.066255569 -3.3378601e-05 4284329216
-0.58448982 0.1248908 -3.3378601e-05 4284329216
-0.51246452 0.074530125 -3.3378601e-05 4284329216
-0.52364635 0.1330266 -0.00015258789 4284329216
-0.57489014 0.17814684 -3.3378601e-05 4284329216
-0.57594776 0.2574954 -3.3378601e-05 4284329216
-0.50924492 0.1819911 -0.00015258789 4284329216
-0.51272392 0.2465477 -0.00015258789 4284329216
-0.46002007 0.077958107 -0.00015258789 4284329216
-0.46012402 0.13836098 -3.3378601e-05 4284329216
-0.4027338 0.065466404 -3.3378601e-05 4284329216
-0.40468121 0.12891293 -3.3378601e-05 4284329216
-0.46321964 0.18708324 -3.3378601e-05 4284329216
-0.46549225 0.23284054 -3.3378601e-05 4284329216
-0.40902328 0.19210005 -0.00015258789 4284329216
-0.40013218 0.24145555 -3.3378601e-05 4284329216
-1.2495003 0.28835678 -0.00015258789 4284329216
-1.2402077 0.35317945 -0.00015258789 4284329216
-1.1941147 0.29161835 -0.00015258789 4284329216
-1.191205 0.35132456 -0.00015258789 4284329216
-1.2428055 0.40238905 -3.3378601e-05 4284329216
-1.2452755 0.46219826 -3.3378601e-05 4284329216
-1.1832075 0.40921974 -3.3378601e-05 4284329216
-1.180294 0.46745157 -3.3378601e-05 4284329216
-1.1327133 0.30406046 -0.00015258789 4284329216
-1.1362209 0.355515 -0.00015258789 4284329216
-1.0838089 0.29905462 -3.3378601e-05 4284329216
-1.0891294 0.35571098 -3.3378601e-05 4284329216
-1.1231279 0.4149971 -3.3378601e-05 4284329216
-1.1464634 0.46683741 -0.00015258789 4284329216
-1.0774851 0.40916872 -0.00015258789 4284329216
-1.0808725 0.45457125 -3.3378601e-05 4284329216
-1.2508717 0.52122307 -0.00015258789 4284329216
-1.2436867 0.57972097 -0.00015258789 4284329216
-1.1969967 0.50891018 -3.3378601e-05 4284329216
-1.1896667 0.57412052 -0.00015258789 4284329216
-1.2483063 0.63593674 -0.00015258789 4284329216
-1.2409458 0.68720627 -3.3378601e-05 4284329216
-1.2016888 0.6408143 -3.3378601e-05 4284329216
-1.1952333 0.69815397 -3.3378601e-05 4284329216
-1.1355743 0.52398205 -3.3378601e-05 4284329216
-1.135149 0.57728672 -0.00015258789 4284329216
-1.0825949 0.52183437 -0.00015258789 4284329216
-1.0770483 0.58446741 -0.00015258789 4284329216
-1.1302061 0.63072491 -0.00015258789 4284329216
-1.1250544 0.69530201 -3.3378601e-05 4284329216
-1.089324 0.63003492 -0.00015258789 4284329216
-1.0796776 0.69198275 -0.00015258789 4284329216
-1.0236416 0.28954077 -3.3378601e-05 4284329216
-1.017458 0.35779142 -0.00015258789 4284329216
-0.96578979 0.29276228 -0.00015258789 4284329216
-0.97318363 0.35144663 -3.3378601e-05 4284329216
-1.0227365 0.41305304 -3.3378601e-05 4284329216
-1.0166378 0.47766733 -3.3378601e-05 4284329216
-0.95897961 0.40575409 -0.00015258789 4284329216
-0.95837879 0.46502018 -0.00015258789 4284329216
-0.90272141 0.30838585 -3.3378601e-05 4284329216
-0.90058708 0.36002541 -3.3378601e-05 4284329216
-0.85666656 0.29850435 -0.00015258789 4284329216
-0.85412598 0.36504698 -3.3378601e-05 4284329216
-0.89738083 0.40775967 -0.00015258789 4284329216
-0.90512562 0.46544695 -0.00015258789 4284329216
-0.84755611 0.40568781 -0.00015258789 4284329216
-0.84692001 0.47308588 -3.3378601e-05 4284329216
-1.0235729 0.52325106 -3.3378601e-05 4284329216
-1.0335283 0.5797534 -3.3378601e-05 4284329216
-0.97609234 0.52140713 -3.3378601e-05 4284329216
-0.97249603 0.57872581 -0.00015258789 4284329216
-1.0122404 0.63628769 -3.3378601e-05 4284329216
-1.0183697 0.69464779 -0.00015258789 4284329216
-0.97636795 0.62645817 -0.00015258789 4284329216
-0.96856594 0.69645071 -3.3378601e-05 4284329216
-0.91167831 0.51570272 -3.3378601e-05 4284329216
-0.90803432 0.56808424 -3.3378601e-05 4284329216
-0.85392952 0.51802397 -0.00015258789 4284329216
-0.84962463 0.58083344 -3.3378601e-05 4284329216
-0.90850449 0.63043022 -3.3378601e-05 4284329216
-0.92225075 0.69208908 -0.00015258789 4284329216
-0.84559631 0.63042831 -3.3378601e-05 4284329216
-0.8478241 0.68954039 -0.00015258789 4284329216
-1.2428379 0.76519728 -3.3378601e-05 4284329216
-1.2576504 0.80916643 -3.3378601e-05 4284329216
-1.1938658 0.74847746 -0.00015258789 4284329216
-1.1898556 0.80469227 -3.3378601e-05 4284329216
-1.2413864 0.86024618 -3.3378601e-05 4284329216
-1.254632 0.89519978 -0.00015258789 4284329216
-1.1969337 0.85848379 -3.3378601e-05 4284329216
-1.1955662 0.92008829 -3.3378601e-05 4284329216
-1.1444149 0.7488327 -0.00015258789 4284329216
-1.1226883 0.79571056 -3.3378601e-05 4284329216
-1.0847044 0.73955822 -0.00015258789 4284329216
-1.0863638 0.81022787 -3.3378601e-05 4284329216
-1.1423111 0.85870838 -3.3378601e-05 4284329216
-1.1359625 0.91957188 -3.3378601e-05 4284329216
-1.0841627 0.86859608 -0.00015258789 4284329216
-1.074914 0.92235231 -3.3378601e-05 4284329216
-1.2469997 0.96760368 -0.00015258789 4284329216
-1.2418289 1.0362167 -3.3378601e-05 4284329216
-1.191679 0.97197628 -0.00015258789 4284329216
-1.1891165 1.0302024 -0.00015258789 4284329216
-1.2402983 1.0817928 -3.3378601e-05 4284329216
-1.2429228 1.137732 -0.00015258789 4284329216
-1.1841383 1.0835733 -0.00015258789 4284329216
-1.1830301 1.1392379 -3.3378601e-05 4284329216
-1.1228571 0.97462511 -3.3378601e-05 4284329216
-1.1333675 1.0251284 -3.3378601e-05 4284329216
-1.0763397 0.96924067 -3.3378601e-05 4284329216
-1.0660067 1.0130124 -3.3378601e-05 4284329216
-1.1363297 1.0808887 -0.00015258789 4284329216
-1.1279716 1.1506476 -3.3378601e-05 4284329216
-1.0749712 1.0772214 -0.00015258789 4284329216
-1.0776463 1.1363268 -3.3378601e-05 4284329216
-1.0228376 0.74314213 -0.00015258789 4284329216
-1.0180788 0.81150961 -3.3378601e-05 4284329216
-0.98042297 0.73894548 -0.00015258789 4284329216
-0.96222687 0.80312252 -3.3378601e-05 4284329216
-1.0331755 0.85634661 -0.00015258789 4284329216
-1.0323687 0.89987135 -0.00015258789 4284329216
-0.96047115 0.85746098 -0.00015258789 4284329216
-0.96530914 0.90755796 -3.3378601e-05 4284329216
-0.910182 0.75197124 -3.3378601e-05 4284329216
-0.91315556 0.79392862 -0.00015258789 4284329216
-0.8517561 0.7439127 -0.00015258789 4284329216
-0.8481102 0.79827642 -0.00015258789 4284329216
-0.91825104 0.86070633 -0.00015258789 4284329216
-0.90989876 0.90650177 -0.00015258789 4284329216
-0.846385 0.85639477 -3.3378601e-05 4284329216
-0.85758686 0.91435099 -3.3378601e-05 4284329216
-1.0244255 0.95867205 -0.00015258789 4284329216
-1.0214338 1.0308056 -3.3378601e-05 4284329216
-0.96493721 0.97240829 -3.3378601e-05 4284329216
-0.96743107 1.0277667 -3.3378601e-05 4284329216
-1.0119362 1.0794969 -0.00015258789 4284329216
-1.0158396 1.1448069 -0.00015258789 4284329216
-0.96477222 1.0801997 -3.3378601e-05 4284329216
-0.96916962 1.1362166 -0.00015258789 4284329216
-0.90858269 0.97643328 -0.00015258789 4284329216
-0.9150219 1.0308514 -0.00015258789 4284329216
-0.85602093 0.96722794 -0.00015258789 4284329216
-0.85483456 1.0256815 -0.00015258789 4284329216
-0.91401577 1.0925398 -3.3378601e-05 4284329216
-0.91376591 1.1444473 -0.00015258789 4284329216
-0.84783077 1.0824265 -0.00015258789 4284329216
-0.84417152 1.1362047 -3.3378601e-05 4284329216
-0.79441929 0.30436134 -3.3378601e-05 4284329216
-0.80529881 0.35773277 -3.3378601e-05 4284329216
-0.732934 0.30220222 -3.3378601e-05 4284329216
-0.74648952 0.35790825 -0.00015258789 4284329216
-0.79944515 0.41310263 -3.3378601e-05 4284329216
-0.79493904 0.4795146 -3.3378601e-05 4284329216
-0.74086094 0.41030693 -0.00015258789 4284329216
-0.73265266 0.46904278 -0.00015258789 4284329216
-0.69029617 0.29111576 -3.3378601e-05 4284329216
-0.68401051 0.35173845 -0.00015258789 4284329216
-0.62447929 0.30614567 -0.00015258789 4284329216
-0.62466908 0.35326481 -0.00015258789 4284329216
-0.68519592 0.41084766 -3.3378601e-05 4284329216
-0.68546581 0.46875334 -0.00015258789 4284329216
-0.61969566 0.41729879 -0.00015258789 4284329216
-0.63107967 0.46831656 -0.00015258789 4284329216
-0.80360031 0.52464533 -3.3378601e-05 4284329216
-0.80075932 0.5835228 -0.00015258789 4284329216
-0.74373245 0.5165658 -3.3378601e-05 4284329216
-0.73066235 0.56980371 -3.3378601e-05 4284329216
-0.80024529 0.62241268 -3.3378601e-05 4284329216
-0.79471397 0.69957829 -3.3378601e-05 4284329216
-0.74976444 0.63257265 -0.00015258789 4284329216
-0.74391174 0.68733311 -0.00015258789 4284329216
-0.69597054 0.52520895 -0.00015258789 4284329216
-0.67970943 0.57888889 -0.00015258789 4284329216
-0.62670517 0.5267415 -3.3378601e-05 4284329216
-0.63836384 0.58570337 -3.3378601e-05 4284329216
-0.68409348 0.63050365 -0.00015258789 4284329216
-0.68686295 0.68777466 -0.00015258789 4284329216
-0.61930656 0.64124393 -3.3378601e-05 4284329216
-0.62904835 0.6990118 -0.00015258789 4284329216
-0.58570099 0.2982111 -3.3378601e-05 4284329216
-0.57778549 0.34508038 -0.00015258789 4284329216
-0.52007675 0.29568338 -0.00015258789 4284329216
-0.51736927 0.36557007 -0.00015258789 4284329216
-0.57502747 0.41745234 -3.3378601e-05 4284329216
-0.56801891 0.46675873 -0.00015258789 4284329216
-0.51967621 0.41231632 -0.00015258789 4284329216
-0.52782822 0.46766233 -0.00015258789 4284329216
-0.45636177 0.30165195 -0.00015258789 4284329216
-0.46227074 0.35761404 -3.3378601e-05 4284329216
-0.40830421 0.30345821 -0.00015258789 4284329216
-0.40120792 0.35534382 -3.3378601e-05 4284329216
-0.45885849 0.40892458 -0.00015258789 4284329216
-0.45760727 0.46571445 -0.00015258789 4284329216
-0.40670013 0.41249561 -0.00015258789 4284329216
-0.41109943 0.46438551 -3.3378601e-05 4284329216
-0.57815742 0.51828098 -3.3378601e-05 4284329216
-0.57755089 0.57483292 -0.00015258789 4284329216
-0.52639389 0.52425432 -0.00015258789 4284329216
-0.50849628 0.56869364 -3.3378601e-05 4284329216
-0.57644749 0.62701654 -3.3378601e-05 4284329216
-0.57900715 0.68731689 -0.00015258789 4284329216
-0.51981163 0.64834976 -0.00015258789 4284329216
-0.51459312 0.68497467 -0.00015258789 4284329216
-0.46760464 0.52534056 -0.00015258789 4284329216
-0.46594334 0.56147623 -3.3378601e-05 4284329216
-0.40831089 0.52541828 -3.3378601e-05 4284329216
-0.39806366 0.58001184 -0.00015258789 4284329216
-0.4694519 0.63662672 -0.00015258789 4284329216
-0.45624065 0.68733072 -0.00015258789 4284329216
-0.40826702 0.64319944 -3.3378601e-05 4284329216
-0.40437317 0.69551039 -3.3378601e-05 4284329216
-0.79621124 0.7466116 -0.00015258789 4284329216
-0.79290009 0.80088329 -3.3378601e-05 4284329216
-0.74663258 0.73740244 -3.3378601e-05 4284329216
-0.750947 0.80312157 -3.3378601e-05 4284329216
-0.80228615 0.86180687 -3.3378601e-05 4284329216
-0.79785824 0.91639233 -3.3378601e-05 4284329216
-0.73507118 0.86060572 -3.3378601e-05 4284329216
-0.73790359 0.91114426 -0.00015258789 4284329216
-0.68956184 0.74694204 -3.3378601e-05 4284329216
-0.67868805 0.80302906 -3.3378601e-05 4284329216
-0.62262821 0.747437 -0.00015258789 4284329216
-0.62572193 0.80215645 -3.3378601e-05 4284329216
-0.7044096 0.86115456 -3.3378601e-05 4284329216
-0.68658638 0.91326952 -3.3378601e-05 4284329216
-0.63760471 0.85727262 -3.3378601e-05 4284329216
-0.61662483 0.9208765 -3.3378601e-05 4284329216
-0.79725361 0.97760439 -0.00015258789 4284329216
-0.80447769 1.0255699 -0.00015258789 4284329216
-0.73803806 0.96340418 -3.3378601e-05 4284329216
-0.74693871 1.0178528 -0.00015258789 4284329216
-0.79440784 1.0723348 -3.3378601e-05 4284329216
-0.78433132 1.1305199 -0.00015258789 4284329216
-0.73747635 1.0802593 -0.00015258789 4284329216
-0.7448082 1.1331921 -0.00015258789 4284329216
-0.67900848 0.96953773 -3.3378601e-05 4284329216
-0.69284248 1.0263352 -0.00015258789 4284329216
-0.63562679 0.95744514 -3.3378601e-05 4284329216
-0.63339043 1.0297332 -0.00015258789 4284329216
-0.68312359 1.0760069 -0.00015258789 4284329216
-0.67446995 1.1415491 -3.3378601e-05 4284329216
-0.63130856 1.087182 -3.3378601e-05 4284329216
-0.63399792 1.1261959 -3.3378601e-05 4284329216
-0.57142735 0.7397418 -0.00015258789 4284329216
-0.56455898 0.7976675 -3.3378601e-05 4284329216
-0.5103426 0.73867464 -3.3378601e-05 4284329216
-0.52104759 0.80577946 -0.00015258789 4284329216
-0.57501411 0.85301685 -3.3378601e-05 4284329216
-0.57597923 0.91331816 -3.3378601e-05 4284329216
-0.52618313 0.85814238 -3.3378601e-05 4284329216
-0.52441311 0.91459417 -0.00015258789 4284329216
-0.46214199 0.75573492 -3.3378601e-05 4284329216
-0.4761467 0.79432678 -3.3378601e-05 4284329216
-0.40255451 0.74480677 -0.00015258789 4284329216
-0.41370678 0.80270815 -3.3378601e-05 4284329216
-0.457654 0.85796022 -0.00015258789 4284329216
-0.45713234 0.92017365 -3.3378601e-05 4284329216
-0.40579414 0.86226988 -0.00015258789 4284329216
-0.41667366 0.90702248 -0.00015258789 4284329216
-0.57615376 0.97373772 -0.00015258789 4284329216
-0.57217407 1.0415306 -0.00015258789 4284329216
-0.51499081 0.96823168 -0.00015258789 4284329216
-0.51647663 1.0237837 -3.3378601e-05 4284329216
-0.57843304 1.0868659 -0.00015258789 4284329216
-0.57729053 1.1423569 -3.3378601e-05 4284329216
-0.52213287 1.0793967 -3.3378601e-05 4284329216
-0.51947212 1.1464281 -3.3378601e-05 4284329216
-0.46002007 0.96536398 -3.3378601e-05 4284329216
-0.45087814 1.0271754 -3.3378601e-05 4284329216
-0.40349483 0.97342443 -0.00015258789 4284329216
-0.39704895 1.0366144 -0.00015258789 4284329216
-0.45131588 1.0825191 -0.00015258789 4284329216
-0.46381283 1.1370301 -0.00015258789 4284329216
-0.41336346 1.0833201 -0.00015258789 4284329216
-0.4028635 1.1391602 -0.00015258789 4284329216
-0.35668182 -0.5521059 0.012433052 4284329216
-0.29363251 -0.5521059 0.020683765 4284329216
-0.3485136 -0.48212385 -3.3378601e-05 4284329216
-0.34380245 -0.4195385 -0.00015258789 4284329216
-0.28924465 -0.50210667 0.021080494 4293599744
-0.29426956 -0.43847275 -0.00015258789 4284329216
-0.35613346 -0.54288769 0.049966335 4293599744
-0.29699516 -0.52404881 0.049966335 4293599744
-0.34319687 -0.50825024 0.049966335 4293599744
-0.29649067 -0.51103783 0.049966335 4293599744
-0.25031471 -0.5521059 0.013451099 4284329216
-0.18175602 -0.5521059 0.030714512 4284329216
-0.23708439 -0.48469543 -3.3378601e-05 4284329216
-0.23853874 -0.42260218 -0.00015258789 4284329216
-0.19071674 -0.50210667 0.019582272 4293599744
-0.1793623 -0.42758274 -3.3378601e-05 4284329216
-0.2339859 -0.54096985 0.049966335 4293599744
-0.18207932 -0.52347851 0.049966335 4293599744
-0.2298336 -0.50831413 0.049966335 4293599744
-0.17234135 -0.50429153 0.049966335 4293599744
-0.35497952 -0.36790705 -3.3378601e-05 4284329216
-0.35308456 -0.31225729 -0.00015258789 4284329216
-0.29540253 -0.36509943 -3.3378601e-05 4284329216
-0.29212189 -0.3204608 -3.3378601e-05 4284329216
-0.35237503 -0.26029634 -3.3378601e-05 4284329216
-0.34642124 -0.1986866 -0.00015258789 4284329216
-0.28311825 -0.26130152 -0.00015258789 4284329216
-0.29000854 -0.19660044 -0.00015258789 4284329216
-0.24328232 -0.37260485 -3.3378601e-05 4284329216
-0.23384666 -0.32387114 -3.3378601e-05 4284329216
-0.18157005 -0.36752558 -0.00015258789 4284329216
-0.18631935 -0.31050873 -3.3378601e-05 4284329216
-0.23578644 -0.2559185 -3.3378601e-05 4284329216
-0.23964214 -0.20135689 -3.3378601e-05 4284329216
-0.18848038 -0.26167011 -3.3378601e-05 4284329216
-0.18978405 -0.20397472 -0.00015258789 4284329216
-0.12503052 -0.5521059 0.01653862 4284329216
-0.071593285 -0.5521059 0.017358303 4284329216
-0.13036537 -0.48626852 -0.00015258789 4284329216
-0.13107681 -0.42817593 -0.00015258789 4284329216
-0.07612133 -0.48768234 -0.00015258789 4284329216
-0.070017815 -0.42818689 -3.3378601e-05 4284329216
-0.13317204 -0.5336237 0.049966335 4293599744
-0.071051598 -0.53741169 0.049966335 4293599744
-0.063513756 -0.50302982 0.049966335 4293599744
-0.011425972 -0.5521059 0.007522583 4284329216
0.040840149 -0.5521059 0.026010036 4284329216
-0.017186165 -0.48860312 -3.3378601e-05 4284329216
-0.013149261 -0.43326521 -0.00015258789 4284329216
0.04581356 -0.50210667 0.0091958046 4293599744
0.043741226 -0.4314208 -3.3378601e-05 4284329216
-0.022601128 -0.53875256 0.049966335 4293599744
0.033736229 -0.5444479 0.049966335 4293599744
0.00050544739 -0.50655556 0.049966335 4293599744
0.021107674 -0.50617504 0.049966335 4293599744
-0.12560463 -0.36888838 -0.00015258789 4284329216
-0.12426949 -0.31235838 -0.00015258789 4284329216
-0.072031975 -0.37704468 -0.00015258789 4284329216
-0.049677849 -0.31686068 -0.00015258789 4284329216
-0.12284279 -0.26034594 -3.3378601e-05 4284329216
-0.13042927 -0.20413876 -3.3378601e-05 4284329216
-0.063163757 -0.26376438 -0.00015258789 4284329216
-0.069915771 -0.20629644 -3.3378601e-05 4284329216
-0.015752792 -0.38013124 -3.3378601e-05 4284329216
-0.010529518 -0.31387806 -3.3378601e-05 4284329216
0.036883354 -0.36911821 -3.3378601e-05 4284329216
0.041391373 -0.32029581 -3.3378601e-05 4284329216
-0.023104668 -0.26376915 -3.3378601e-05 4284329216
-0.010595322 -0.19322538 -3.3378601e-05 4284329216
0.040751457 -0.26224327 -3.3378601e-05 4284329216
0.030701637 -0.2079649 -3.3378601e-05 4284329216
-0.34015179 -0.14951038 -0.00015258789 4284329216
-0.35805035 -0.098029137 -0.00015258789 4284329216
-0.28695965 -0.142519 -3.3378601e-05 4284329216
-0.30018997 -0.085524082 -0.00015258789 4284329216
-0.36481285 -0.034225941 -0.00015258789 4284329216
-0.3428793 0.022134781 -3.3378601e-05 4284329216
-0.29953384 -0.02573204 -3.3378601e-05 4284329216
-0.29646683 0.019122601 -3.3378601e-05 4284329216
-0.23313141 -0.14034176 -0.00015258789 4284329216
-0.23561001 -0.08511591 -0.00015258789 4284329216
-0.18401241 -0.14944935 -0.00015258789 4284329216
-0.18491745 -0.085349083 -0.00015258789 4284329216
-0.24652481 -0.047394753 -0.00015258789 4284329216
-0.23972797 0.019046307 -3.3378601e-05 4284329216
-0.18283939 -0.041634083 -3.3378601e-05 4284329216
-0.1798172 0.018480301 -3.3378601e-05 4284329216
-0.35268784 0.077507973 -0.00015258789 4284329216
-0.34757423 0.12667179 -0.00015258789 4284329216
-0.29284859 0.082502842 -0.00015258789 4284329216
-0.29450321 0.13696909 -0.00015258789 4284329216
-0.34615612 0.1866436 -3.3378601e-05 4284329216
-0.35231686 0.24239969 -0.00015258789 4284329216
-0.29472828 0.18938255 -0.00015258789 4284329216
-0.29341793 0.24873018 -0.00015258789 4284329216
-0.24955273 0.072294712 -3.3378601e-05 4284329216
-0.24354839 0.1446085 -3.3378601e-05 4284329216
-0.17657375 0.075482845 -3.3378601e-05 4284329216
-0.17972088 0.13375616 -3.3378601e-05 4284329216
-0.24319077 0.1848855 -0.00015258789 4284329216
-0.23810196 0.24190855 -3.3378601e-05 4284329216
-0.17850685 0.18848753 -0.00015258789 4284329216
-0.1937294 0.24127197 -3.3378601e-05 4284329216
-0.12331772 -0.14719963 -0.00015258789 4284329216
-0.13210583 -0.090319633 -0.00015258789 4284329216
-0.067868233 -0.15032578 -3.3378601e-05 4284329216
-0.062386513 -0.092009544 -0.00015258789 4284329216
-0.12248135 -0.04550457 -0.00015258789 4284329216
-0.128829 0.018238068 -3.3378601e-05 4284329216
-0.078021049 -0.037623405 -0.00015258789 4284329216
-0.064436913 0.013248444 -3.3378601e-05 4284329216
-0.0003824234 -0.16318178 -3.3378601e-05 4284329216
-0.015417099 -0.084095955 -3.3378601e-05 4284329216
0.040085793 -0.14919186 -3.3378601e-05 4284329216
0.056706429 -0.093409061 -0.00015258789 4284329216
-0.0070610046 -0.042022705 -0.00015258789 4284329216
-0.021644592 0.019942284 -0.00015258789 4284329216
0.037360191 -0.04761982 -3.3378601e-05 4284329216
0.036093712 0.017251015 -3.3378601e-05 4284329216
-0.13585377 0.088617802 -0.00015258789 4284329216
-0.12708187 0.13663721 -0.00015258789 4284329216
-0.065218925 0.073745251 -0.00015258789 4284329216
-0.079799652 0.13075829 -3.3378601e-05 4284329216
-0.117342 0.18168926 -0.00015258789 4284329216
-0.11220455 0.24304247 -0.00015258789 4284329216
-0.074255943 0.18668795 -3.3378601e-05 4284329216
-0.07518959 0.23801279 -3.3378601e-05 4284329216
-0.011257172 0.074436665 -3.3378601e-05 4284329216
-0.0075893402 0.12854433 -0.00015258789 4284329216
0.045550346 0.073573112 -3.3378601e-05 4284329216
0.0476408 0.13487577 -3.3378601e-05 4284329216
-0.011329651 0.18638706 -3.3378601e-05 4284329216
-0.0097370148 0.24544573 -3.3378601e-05 4284329216
0.043707848 0.18741131 -0.00015258789 4284329216
0.049574852 0.24158382 -3.3378601e-05 4284329216
0.093601227 -0.53863907 -0.00015258789 4284329216
0.15610695 -0.5521059 0.029174328 4284329216
0.083500862 -0.50210667 0.014537334 4293599744
0.10202122 -0.42682409 -3.3378601e-05 4284329216
0.15890217 -0.48548412 -0.00015258789 4284329216
0.15066147 -0.42772007 -0.00015258789 4284329216
0.08497715 -0.53586483 0.049966335 4293599744
0.15808964 -0.5310421 0.049966335 4293599744
0.07483387 -0.50210667 0.049160004 4293599744
0.15272427 -0.50210667 0.049794674 4293599744
0.2180872 -0.5521059 0.029353619 4284329216
0.27356625 -0.5521059 0.01303339 4284329216
0.2043047 -0.50210667 0.024704933 4293599744
0.21314526 -0.43563128 -3.3378601e-05 4284329216
0.26947403 -0.47459078 -3.3378601e-05 4284329216
0.2695961 -0.4314642 -0.00015258789 4284329216
0.2154932 -0.5521059 0.048332214 4284329216
0.26329899 -0.53166485 0.049966335 4293599744
0.2052927 -0.50526714 0.049966335 4293599744
0.26118565 -0.50789547 0.049966335 4293599744
0.093830109 -0.37244511 -0.00015258789 4284329216
0.10024071 -0.32130241 -0.00015258789 4284329216
0.15470123 -0.37017918 -0.00015258789 4284329216
0.15503025 -0.31159639 -0.00015258789 4284329216
0.1004324 -0.26615238 -0.00015258789 4284329216
0.094138145 -0.20549965 -3.3378601e-05 4284329216
0.15687943 -0.2646594 -0.00015258789 4284329216
0.15720463 -0.19790602 -3.3378601e-05 4284329216
0.21011543 -0.36345148 -3.3378601e-05 4284329216
0.20409489 -0.32004738 -3.3378601e-05 4284329216
0.26282024 -0.36967993 -3.3378601e-05 4284329216
0.25572872 -0.31733704 -0.00015258789 4284329216
0.21061039 -0.26400661 -3.3378601e-05 4284329216
0.21344948 -0.21093702 -3.3378601e-05 4284329216
0.26212215 -0.25687218 -3.3378601e-05 4284329216
0.27243137 -0.20306063 -3.3378601e-05 4284329216
0.31415558 -0.5521059 0.031259537 4284329216
0.38351345 -0.53987885 -3.3378601e-05 4284329216
0.31828499 -0.50210667 0.018836021 4293599744
0.31708336 -0.42683887 -0.00015258789 4284329216
0.38240623 -0.47825432 -0.00015258789 4284329216
0.3703146 -0.41892004 -3.3378601e-05 4284329216
0.31544113 -0.54349518 0.049966335 4293599744
0.37171745 -0.5483427 0.049966335 4293599744
0.32313919 -0.50458145 0.049966335 4293599744
0.4411993 -0.5521059 0.020611763 4284329216
0.47719765 -0.5521059 0.014237881 4284329216
0.43186951 -0.48212862 -3.3378601e-05 4284329216
0.42688847 -0.43304586 -0.00015258789 4284329216
0.4829607 -0.50210667 0.024508953 4293599744
0.49062729 -0.42605829 -0.00015258789 4284329216
0.42280102 -0.54386711 0.049966335 4293599744
0.48715401 -0.5263319 0.049966335 4293599744
0.4295702 -0.5079298 0.049966335 4293599744
0.49374008 -0.50748539 0.049966335 4293599744
0.33279896 -0.36348438 -0.00015258789 4284329216
0.3219614 -0.31769514 -0.00015258789 4284329216
0.38116741 -0.36750126 -0.00015258789 4284329216
0.37564087 -0.32158518 -0.00015258789 4284329216
0.31989384 -0.2610383 -3.3378601e-05 4284329216
0.32454491 -0.19715548 -0.00015258789 4284329216
0.37438679 -0.25778151 -3.3378601e-05 4284329216
0.3713541 -0.21063232 -0.00015258789 4284329216
0.43939114 -0.36766815 -0.00015258789 4284329216
0.42768478 -0.31099272 -0.00015258789 4284329216
0.4933176 -0.36597347 -0.00015258789 4284329216
0.48593521 -0.32372046 -0.00015258789 4284329216
0.43979263 -0.24936247 -0.00015258789 4284329216
0.42780685 -0.20384359 -0.00015258789 4284329216
0.48430157 -0.2569952 -3.3378601e-05 4284329216
0.49790573 -0.19794369 -3.3378601e-05 4284329216
0.097075462 -0.1424737 -0.00015258789 4284329216
0.09346962 -0.08966732 -3.3378601e-05 4284329216
0.15079498 -0.15179539 -0.00015258789 4284329216
0.15355873 -0.092543125 -3.3378601e-05 4284329216
0.079993248 -0.030787945 -3.3378601e-05 4284329216
0.10077667 0.011525154 -0.00015258789 4284329216
0.15705109 -0.037350178 -3.3378601e-05 4284329216
0.13998604 0.023841381 -0.00015258789 4284329216
0.21919823 -0.14115763 -0.00015258789 4284329216
0.20467567 -0.087872982 -0.00015258789 4284329216
0.26863289 -0.14057112 -3.3378601e-05 4284329216
0.26300716 -0.09387207 -3.3378601e-05 4284329216
0.21248436 -0.038091183 -0.00015258789 4284329216
0.20000935 0.022126198 -3.3378601e-05 4284329216
0.25962353 -0.031285286 -3.3378601e-05 4284329216
0.25693035 0.01621294 -0.00015258789 4284329216
0.098732948 0.076440334 -0.00015258789 4284329216
0.099468231 0.13439608 -3.3378601e-05 4284329216
0.14890575 0.074742317 -0.00015258789 4284329216
0.15484715 0.13480616 -3.3378601e-05 4284329216
0.095790863 0.1916976 -0.00015258789 4284329216
0.10396767 0.25244093 -0.00015258789 4284329216
0.14792156 0.18581867 -0.00015258789 4284329216
0.15420151 0.24229908 -3.3378601e-05 4284329216
0.20048332 0.065962791 -0.00015258789 4284329216
0.20903397 0.14042759 -3.3378601e-05 4284329216
0.27250671 0.073852539 -0.00015258789 4284329216
0.26416588 0.14143753 -0.00015258789 4284329216
0.20765972 0.17874622 -0.00015258789 4284329216
0.20623016 0.24167156 -3.3378601e-05 4284329216
0.258955 0.1832571 -0.00015258789 4284329216
0.26425266 0.24385309 -0.00015258789 4284329216
0.32534885 -0.1475153 -3.3378601e-05 4284329216
0.31901455 -0.095281601 -3.3378601e-05 4284329216
0.37394524 -0.14124775 -0.00015258789 4284329216
0.37761211 -0.091467857 -3.3378601e-05 4284329216
0.32108116 -0.030992031 -0.00015258789 4284329216
0.32075119 0.0076465607 -0.00015258789 4284329216
0.37769222 -0.030825615 -0.00015258789 4284329216
0.37963295 0.023331165 -3.3378601e-05 4284329216
0.42841339 -0.14718866 -3.3378601e-05 4284329216
0.42864227 -0.085349083 -0.00015258789 4284329216
0.48116493 -0.15044165 -3.3378601e-05 4284329216
0.48779202 -0.081278324 -3.3378601e-05 4284329216
0.43249416 -0.03469944 -3.3378601e-05 4284329216
0.42745972 0.015184402 -0.00015258789 4284329216
0.49114799 -0.04713583 -3.3378601e-05 4284329216
0.4902935 0.0098085403 -3.3378601e-05 4284329216
0.31541538 0.079436779 -3.3378601e-05 4284329216
0.30367756 0.12763309 -0.00015258789 4284329216
0.37765026 0.065991402 -3.3378601e-05 4284329216
0.37920761 0.13326979 -3.3378601e-05 4284329216
0.33101845 0.17721844 -0.00015258789 4284329216
0.32788086 0.24457502 -3.3378601e-05 4284329216
0.37357426 0.18155909 -3.3378601e-05 4284329216
0.37299824 0.24096107 -3.3378601e-05 4284329216
0.43711662 0.078882217 -0.00015258789 4284329216
0.4397583 0.12755537 -0.00015258789 4284329216
0.48021793 0.077047348 -3.3378601e-05 4284329216
0.4914484 0.13945389 -0.00015258789 4284329216
0.42676067 0.18428993 -0.00015258789 4284329216
0.4284153 0.23737574 -0.00015258789 4284329216
0.48883724 0.19375849 -0.00015258789 4284329216
0.48478317 0.25223732 -0.00015258789 4284329216
-0.34997845 0.29128933 -0.00015258789 4284329216
-0.34531689 0.35764742 -0.00015258789 4284329216
-0.2941761 0.30687857 -3.3378601e-05 4284329216
-0.2982254 0.36306524 -0.00015258789 4284329216
-0.36083794 0.42474556 -0.00015258789 4284329216
-0.345541 0.46684837 -0.00015258789 4284329216
-0.29528046 0.41672039 -3.3378601e-05 4284329216
-0.3091116 0.47007799 -3.3378601e-05 4284329216
-0.23624706 0.30136919 -3.3378601e-05 4284329216
-0.23895645 0.36239958 -3.3378601e-05 4284329216
-0.18123817 0.29836893 -0.00015258789 4284329216
-0.18120956 0.35613346 -3.3378601e-05 4284329216
-0.23888588 0.39987803 -0.00015258789 4284329216
-0.24423409 0.46638489 -3.3378601e-05 4284329216
-0.1847887 0.41692257 -0.00015258789 4284329216
-0.19867229 0.46033096 -3.3378601e-05 4284329216
-0.34971333 0.51996803 -3.3378601e-05 4284329216
-0.34585667 0.58284521 -3.3378601e-05 4284329216
-0.28922749 0.52937031 -0.00015258789 4284329216
-0.29337025 0.57235861 -0.00015258789 4284329216
-0.3507185 0.63447857 -0.00015258789 4284329216
-0.34969902 0.69905233 -3.3378601e-05 4284329216
-0.29095745 0.62872648 -0.00015258789 4284329216
-0.30400181 0.68672943 -3.3378601e-05 4284329216
-0.23374653 0.5305891 -3.3378601e-05 4284329216
-0.24018383 0.57671738 -3.3378601e-05 4284329216
-0.19710732 0.51440859 -0.00015258789 4284329216
-0.18872261 0.57837772 -3.3378601e-05 4284329216
-0.23258781 0.63622618 -3.3378601e-05 4284329216
-0.24331856 0.6907115 -3.3378601e-05 4284329216
-0.19131756 0.63135433 -3.3378601e-05 4284329216
-0.17058945 0.69581604 -0.00015258789 4284329216
-0.12925053 0.30793476 -0.00015258789 4284329216
-0.12383461 0.34248304 -0.00015258789 4284329216
-0.080765724 0.29279184 -3.3378601e-05 4284329216
-0.06701088 0.36760902 -3.3378601e-05 4284329216
-0.11882019 0.41862631 -3.3378601e-05 4284329216
-0.13021088 0.46442652 -0.00015258789 4284329216
-0.071755409 0.40911388 -3.3378601e-05 4284329216
-0.072550774 0.46994209 -3.3378601e-05 4284329216
-0.011798859 0.29362488 -3.3378601e-05 4284329216
-0.026185989 0.35525703 -0.00015258789 4284329216
0.041003227 0.28629351 -0.00015258789 4284329216
0.037723541 0.34872913 -0.00015258789 4284329216
-0.0098581314 0.40161753 -0.00015258789 4284329216
-0.014713287 0.4679327 -3.3378601e-05 4284329216
0.042627335 0.4106102 -3.3378601e-05 4284329216
0.055979729 0.466465 -0.00015258789 4284329216
-0.12867737 0.51746321 -0.00015258789 4284329216
-0.12578487 0.58617592 -0.00015258789 4284329216
-0.081363678 0.51625443 -3.3378601e-05 4284329216
-0.071455956 0.57663298 -0.00015258789 4284329216
-0.12947083 0.63963175 -0.00015258789 4284329216
-0.13907051 0.69372988 -0.00015258789 4284329216
-0.069613457 0.63668537 -0.00015258789 4284329216
-0.066660881 0.69351721 -0.00015258789 4284329216
-0.013021469 0.53583384 -3.3378601e-05 4284329216
-0.0094156265 0.57574892 -0.00015258789 4284329216
0.031422615 0.51890135 -3.3378601e-05 4284329216
0.05657196 0.57511711 -3.3378601e-05 4284329216
-0.020482063 0.63952446 -3.3378601e-05 4284329216
-0.016662598 0.69018126 -0.00015258789 4284329216
0.040046692 0.63058901 -3.3378601e-05 4284329216
0.040622711 0.69522858 -0.00015258789 4284329216
-0.34798241 0.74587584 -3.3378601e-05 4284329216
-0.36110687 0.80568123 -3.3378601e-05 4284329216
-0.28478909 0.74180269 -0.00015258789 4284329216
-0.29614639 0.80085707 -3.3378601e-05 4284329216
-0.33683014 0.86007404 -3.3378601e-05 4284329216
-0.36109447 0.92497206 -0.00015258789 4284329216
-0.29981232 0.86151457 -0.00015258789 4284329216
-0.28860283 0.92235088 -3.3378601e-05 4284329216
-0.24170113 0.75071096 -0.00015258789 4284329216
-0.23004246 0.80784273 -0.00015258789 4284329216
-0.18464279 0.74191141 -3.3378601e-05 4284329216
-0.18990517 0.80442047 -3.3378601e-05 4284329216
-0.23330593 0.8670516 -0.00015258789 4284329216
-0.23513603 0.90711069 -0.00015258789 4284329216
-0.18509102 0.84684753 -0.00015258789 4284329216
-0.18162727 0.91754818 -0.00015258789 4284329216
-0.34332943 0.97042608 -0.00015258789 4284329216
-0.34764481 1.0309305 -3.3378601e-05 4284329216
-0.29879761 0.96486902 -3.3378601e-05 4284329216
-0.3044548 1.0166922 -0.00015258789 4284329216
-0.35061169 1.0820765 -3.3378601e-05 4284329216
-0.3464241 1.1390162 -0.00015258789 4284329216
-0.30354214 1.0908289 -0.00015258789 4284329216
-0.29756737 1.1367178 -3.3378601e-05 4284329216
-0.23141861 0.9635663 -3.3378601e-05 4284329216
-0.24110508 1.0259933 -3.3378601e-05 4284329216
-0.18597412 0.97462893 -3.3378601e-05 4284329216
-0.18588829 1.0280695 -0.00015258789 4284329216
-0.24381161 1.0799952 -0.00015258789 4284329216
-0.22850418 1.1341071 -3.3378601e-05 4284329216
-0.18728828 1.0747967 -3.3378601e-05 4284329216
-0.17037201 1.1408362 -0.00015258789 4284329216
-0.13049316 0.75759268 -3.3378601e-05 4284329216
-0.12114239 0.79916239 -0.00015258789 4284329216
-0.064512253 0.74895716 -0.00015258789 4284329216
-0.071146011 0.80561399 -3.3378601e-05 4284329216
-0.12015438 0.86222506 -3.3378601e-05 4284329216
-0.12451744 0.91499329 -0.00015258789 4284329216
-0.066251755 0.86579561 -3.3378601e-05 4284329216
-0.076843262 0.92015839 -0.00015258789 4284329216
-0.015478134 0.74612093 -3.3378601e-05 4284329216
-0.017223358 0.80759573 -0.00015258789 4284329216
0.041185379 0.74476099 -0.00015258789 4284329216
0.036382675 0.79338932 -0.00015258789 4284329216
-0.0074768066 0.8500824 -3.3378601e-05 4284329216
-0.011711121 0.92134619 -3.3378601e-05 4284329216
0.042983055 0.86804056 -3.3378601e-05 4284329216
0.040354729 0.91602564 -3.3378601e-05 4284329216
-0.13264751 0.96121073 -0.00015258789 4284329216
-0.12159061 1.0301747 -0.00015258789 4284329216
-0.069561958 0.9783802 -3.3378601e-05 4284329216
-0.067476273 1.0297184 -3.3378601e-05 4284329216
-0.13284588 1.0879655 -3.3378601e-05 4284329216
-0.12866116 1.149816 -3.3378601e-05 4284329216
-0.074291229 1.0801725 -3.3378601e-05 4284329216
-0.078331947 1.1365356 -3.3378601e-05 4284329216
-0.0083694458 0.97341919 -0.00015258789 4284329216
-0.012388229 1.0217118 -3.3378601e-05 4284329216
0.041232109 0.97312117 -0.00015258789 4284329216
0.035354614 1.0194664 -3.3378601e-05 4284329216
-0.0087690353 1.084023 -3.3378601e-05 4284329216
-0.0070104599 1.1356411 -3.3378601e-05 4284329216
0.047374725 1.0805659 -0.00015258789 4284329216
0.039666176 1.14149 -0.00015258789 4284329216
0.097969055 0.30027199 -3.3378601e-05 4284329216
0.10392857 0.35244417 -0.00015258789 4284329216
0.15193272 0.2926569 -0.00015258789 4284329216
0.15969849 0.34830141 -0.00015258789 4284329216
0.10118961 0.4057107 -3.3378601e-05 4284329216
0.095155716 0.46727514 -3.3378601e-05 4284329216
0.14779949 0.40944386 -0.00015258789 4284329216
0.15312481 0.47159767 -0.00015258789 4284329216
0.20505524 0.30066776 -3.3378601e-05 4284329216
0.20595646 0.35174227 -3.3378601e-05 4284329216
0.26726246 0.2920866 -3.3378601e-05 4284329216
0.25963211 0.36894274 -3.3378601e-05 4284329216
0.20949268 0.4088974 -0.00015258789 4284329216
0.21065617 0.4733119 -3.3378601e-05 4284329216
0.25852871 0.40251064 -3.3378601e-05 4284329216
0.27053833 0.46453428 -3.3378601e-05 4284329216
0.093854904 0.5262537 -3.3378601e-05 4284329216
0.09264946 0.57629728 -3.3378601e-05 4284329216
0.15803623 0.51571321 -3.3378601e-05 4284329216
0.1570015 0.56671667 -0.00015258789 4284329216
0.10202122 0.63394356 -0.00015258789 4284329216
0.092726707 0.69424105 -0.00015258789 4284329216
0.15282345 0.63155127 -0.00015258789 4284329216
0.15146637 0.69198799 -3.3378601e-05 4284329216
0.20163155 0.52399826 -0.00015258789 4284329216
0.21160507 0.58814096 -3.3378601e-05 4284329216
0.26369095 0.51805782 -3.3378601e-05 4284329216
0.26418114 0.58113098 -0.00015258789 4284329216
0.2035141 0.64497662 -3.3378601e-05 4284329216
0.21130848 0.69481564 -0.00015258789 4284329216
0.27082062 0.62573481 -3.3378601e-05 4284329216
0.26886368 0.69477749 -3.3378601e-05 4284329216
0.31704426 0.29271889 -3.3378601e-05 4284329216
0.32541847 0.35928392 -0.00015258789 4284329216
0.3691864 0.29797077 -0.00015258789 4284329216
0.36467361 0.3555398 -0.00015258789 4284329216
0.31935501 0.41013336 -0.00015258789 4284329216
0.31751823 0.46992683 -3.3378601e-05 4284329216
0.37523651 0.4072237 -3.3378601e-05 4284329216
0.38282871 0.46773195 -0.00015258789 4284329216
0.43206787 0.29909754 -3.3378601e-05 4284329216
0.4361496 0.35623884 -0.00015258789 4284329216
0.48112869 0.29817963 -0.00015258789 4284329216
0.48963547 0.35805225 -3.3378601e-05 4284329216
0.43001556 0.41675854 -0.00015258789 4284329216
0.43407822 0.46701336 -0.00015258789 4284329216
0.47921562 0.41065598 -3.3378601e-05 4284329216
0.49086666 0.45715046 -3.3378601e-05 4284329216
0.31393147 0.52636385 -0.00015258789 4284329216
0.32430172 0.58703375 -0.00015258789 4284329216
0.38280392 0.5208745 -3.3378601e-05 4284329216
0.36473274 0.58145761 -3.3378601e-05 4284329216
0.31103897 0.63241386 -0.00015258789 4284329216
0.32015133 0.69689846 -0.00015258789 4284329216
0.3810854 0.63838673 -3.3378601e-05 4284329216
0.37333393 0.69690895 -0.00015258789 4284329216
0.41970444 0.52544737 -0.00015258789 4284329216
0.42728233 0.58144093 -3.3378601e-05 4284329216
0.4914093 0.53459978 -0.00015258789 4284329216
0.48600769 0.57447577 -3.3378601e-05 4284329216
0.44083786 0.63584042 -3.3378601e-05 4284329216
0.43840504 0.69039488 -0.00015258789 4284329216
0.4813633 0.63576746 -0.00015258789 4284329216
0.48463917 0.68214607 -3.3378601e-05 4284329216
0.10054302 0.74419165 -0.00015258789 4284329216
0.099328041 0.79535294 -0.00015258789 4284329216
0.15037823 0.75387859 -0.00015258789 4284329216
0.15040684 0.79541683 -0.00015258789 4284329216
0.093309402 0.85652542 -3.3378601e-05 4284329216
0.10919285 0.91997147 -3.3378601e-05 4284329216
0.14364815 0.86579084 -3.3378601e-05 4284329216
0.15126991 0.92146969 -0.00015258789 4284329216
0.20485878 0.75583506 -0.00015258789 4284329216
0.20586205 0.8042922 -3.3378601e-05 4284329216
0.26540565 0.74437428 -3.3378601e-05 4284329216
0.2680769 0.79731417 -0.00015258789 4284329216
0.20556545 0.85153389 -3.3378601e-05 4284329216
0.19924927 0.91160774 -3.3378601e-05 4284329216
0.26737118 0.86339188 -3.3378601e-05 4284329216
0.26251411 0.91686106 -3.3378601e-05 4284329216
0.087566376 0.97307587 -0.00015258789 4284329216
0.098711967 1.0296679 -3.3378601e-05 4284329216
0.14655018 0.97258615 -3.3378601e-05 4284329216
0.14601612 1.0215039 -3.3378601e-05 4284329216
0.10244751 1.0845118 -0.00015258789 4284329216
0.083561897 1.1322885 -0.00015258789 4284329216
0.15744305 1.0904574 -3.3378601e-05 4284329216
0.15211868 1.1376696 -3.3378601e-05 4284329216
0.21414566 0.97050762 -3.3378601e-05 4284329216
0.2024231 1.0205817 -0.00015258789 4284329216
0.26917458 0.97220612 -3.3378601e-05 4284329216
0.25343037 1.0207176 -3.3378601e-05 4284329216
0.2045784 1.0748148 -3.3378601e-05 4284329216
0.20552063 1.1461291 -3.3378601e-05 4284329216
0.27353764 1.0800686 -3.3378601e-05 4284329216
0.26307583 1.1506772 -0.00015258789 4284329216
0.30901718 0.74286032 -0.00015258789 4284329216
0.30886269 0.80357885 -3.3378601e-05 4284329216
0.37235928 0.75230265 -3.3378601e-05 4284329216
0.38447666 0.80605221 -0.00015258789 4284329216
0.33101654 0.85516405 -0.00015258789 4284329216
0.31862164 0.91453123 -3.3378601e-05 4284329216
0.38196659 0.86038971 -0.00015258789 4284329216
0.37236691 0.91345882 -3.3378601e-05 4284329216
0.42407322 0.73934364 -3.3378601e-05 4284329216
0.43428326 0.7946701 -3.3378601e-05 4284329216
0.48492241 0.74848223 -0.00015258789 4284329216
0.49209213 0.79674244 -0.00015258789 4284329216
0.43129921 0.85540676 -0.00015258789 4284329216
0.43199348 0.91665745 -0.00015258789 4284329216
0.47969246 0.86263418 -3.3378601e-05 4284329216
0.49361992 0.91394663 -0.00015258789 4284329216
0.3335495 0.95270729 -0.00015258789 4284329216
0.30703449 1.0319304 -0.00015258789 4284329216
0.38222885 0.96037102 -0.00015258789 4284329216
0.38421345 1.0267534 -3.3378601e-05 4284329216
0.32327271 1.0763731 -3.3378601e-05 4284329216
0.3194294 1.1294436 -0.00015258789 4284329216
0.37294674 1.0902309 -0.00015258789 4284329216
0.37968349 1.1348367 -0.00015258789 4284329216
0.44012356 0.97242022 -0.00015258789 4284329216
0.43925571 1.0306358 -0.00015258789 4284329216
0.48688507 0.97511435 -0.00015258789 4284329216
0.48640728 1.0227642 -3.3378601e-05 4284329216
0.42971516 1.0766826 -0.00015258789 4284329216
0.42796993 1.1426163 -0.00015258789 4284329216
0.4918642 1.0892692 -3.3378601e-05 4284329216
0.49352264 1.1388044 -3.3378601e-05 4284329216
-1.2378597 1.1995854 -0.00015258789 4284329216
-1.2364216 1.2487288 -0.00015258789 4284329216
-1.1972132 1.1955199 -3.3378601e-05 4284329216
-1.1895008 1.2590833 -3.3378601e-05 4284329216
-1.245985 1.3065276 -0.00015258789 4284329216
-1.2539272 1.3567419 -3.3378601e-05 4284329216
-1.1849346 1.3067813 -3.3378601e-05 4284329216
-1.1846981 1.3562245 -3.3378601e-05 4284329216
-1.1253023 1.1835613 -0.00015258789 4284329216
-1.1168175 1.2476702 -3.3378601e-05 4284329216
-1.0744886 1.1934338 -0.00015258789 4284329216
-1.0746088 1.2529058 -0.00015258789 4284329216
-1.1269541 1.2968297 -3.3378601e-05 4284329216
-1.1252956 1.3578429 -3.3378601e-05 4284329216
-1.0770903 1.2980418 -3.3378601e-05 4284329216
-1.0732651 1.3593974 -3.3378601e-05 4284329216
-1.2478895 1.4288111 -0.00015258789 4284329216
-1.2441368 1.4721022 -0.00015258789 4284329216
-1.1896343 1.4238653 -0.00015258789 4284329216
-1.1876307 1.4814782 -0.00015258789 4284329216
-1.2498941 1.5341787 -3.3378601e-05 4284329216
-1.250948 1.5913687 -3.3378601e-05 4284329216
-1.1921873 1.5303798 -0.00015258789 4284329216
-1.1985178 1.578568 -0.00015258789 4284329216
-1.1234112 1.4049883 -3.3378601e-05 4284329216
-1.1368551 1.4650111 -0.00015258789 4284329216
-1.0818663 1.4179931 -3.3378601e-05 4284329216
-1.0643034 1.4534211 -0.00015258789 4284329216
-1.1282167 1.5292206 -3.3378601e-05 4284329216
-1.1308851 1.5916233 -0.00015258789 4284329216
-1.0799322 1.5260386 -3.3378601e-05 4284329216
-1.0799026 1.5640349 -3.3378601e-05 4284329216
-1.0284452 1.1967382 -3.3378601e-05 4284329216
-1.0215244 1.2462883 -3.3378601e-05 4284329216
-0.9663353 1.1990967 -3.3378601e-05 4284329216
-0.96436214 1.2387791 -0.00015258789 4284329216
-1.0396681 1.3023915 -3.3378601e-05 4284329216
-1.0158043 1.3648152 -0.00015258789 4284329216
-0.96524429 1.3135214 -0.00015258789 4284329216
-0.96527004 1.3525825 -0.00015258789 4284329216
-0.91513443 1.1861844 -3.3378601e-05 4284329216
-0.90787029 1.247232 -0.00015258789 4284329216
-0.86726952 1.1903515 -3.3378601e-05 4284329216
-0.85636616 1.2497544 -3.3378601e-05 4284329216
-0.91152573 1.3089776 -0.00015258789 4284329216
-0.90968513 1.3573484 -3.3378601e-05 4284329216
-0.85478687 1.3000083 -3.3378601e-05 4284329216
-0.85009384 1.3659129 -3.3378601e-05 4284329216
-1.0207882 1.4230366 -0.00015258789 4284329216
-1.0272589 1.4745584 -3.3378601e-05 4284329216
-0.96684551 1.419497 -3.3378601e-05 4284329216
-0.98116112 1.464859 -3.3378601e-05 4284329216
-1.0309553 1.5300393 -0.00015258789 4284329216
-1.0157862 1.5815754 -3.3378601e-05 4284329216
-0.97400475 1.5305648 -3.3378601e-05 4284329216
-0.96637154 1.5823646 -0.00015258789 4284329216
-0.90834332 1.418088 -0.00015258789 4284329216
-0.90569305 1.4642677 -3.3378601e-05 4284329216
-0.84756279 1.4230409 -3.3378601e-05 4284329216
-0.85579967 1.4682593 -3.3378601e-05 4284329216
-0.91649055 1.5334964 -3.3378601e-05 4284329216
-0.91412735 1.5756602 -0.00015258789 4284329216
-0.84883499 1.5266166 -3.3378601e-05 4284329216
-0.85469437 1.5887899 -0.00015258789 4284329216
-1.2467594 1.6449804 -0.00015258789 4284329216
-1.2341595 1.6978173 -3.3378601e-05 4284329216
-1.1882782 1.637661 -0.00015258789 4284329216
-1.197957 1.7011056 -0.00015258789 4284329216
-1.2474003 1.7479858 -0.00015258789 4284329216
-1.2460852 1.7963605 -3.3378601e-05 4284329216
-1.1917877 1.7446637 -3.3378601e-05 4284329216
-1.1960812 1.8049579 -3.3378601e-05 4284329216
-1.1343632 1.6377974 -3.3378601e-05 4284329216
-1.1379042 1.7078719 -0.00015258789 4284329216
-1.072937 1.635355 -3.3378601e-05 4284329216
-1.0691338 1.7022376 -3.3378601e-05 4284329216
-1.1308937 1.7506666 -3.3378601e-05 4284329216
-1.1370039 1.8043227 -3.3378601e-05 4284329216
-1.0756836 1.7480884 -3.3378601e-05 4284329216
-1.0670528 1.8108096 -0.00015258789 4284329216
-1.25037 1.8692694 -3.3378601e-05 4284329216
-1.2498875 1.9247503 -0.00015258789 4284329216
-1.1899557 1.8585038 -3.3378601e-05 4284329216
-1.1957455 1.9284248 -3.3378601e-05 4284329216
-1.2449818 1.9724422 -3.3378601e-05 4284329216
-1.2480736 2.0347862 -0.00015258789 4284329216
-1.1971779 1.9819264 -3.3378601e-05 4284329216
-1.1919041 2.0306425 -0.00015258789 4284329216
-1.1398745 1.8634267 -3.3378601e-05 4284329216
-1.1283979 1.9233637 -0.00015258789 4284329216
-1.075984 1.864284 -0.00015258789 4284329216
-1.0768261 1.9293556 -3.3378601e-05 4284329216
-1.1267185 1.974649 -0.00015258789 4284329216
-1.1349802 2.044826 -3.3378601e-05 4284329216
-1.0785255 1.9644876 -0.00015258789 4284329216
-1.0706024 2.0242438 -3.3378601e-05 4284329216
-1.0240145 1.6386437 -3.3378601e-05 4284329216
-1.0175047 1.6881924 -3.3378601e-05 4284329216
-0.96290684 1.6456156 -3.3378601e-05 4284329216
-0.96930218 1.688015 -0.00015258789 4284329216
-1.0293713 1.7521739 -0.00015258789 4284329216
-1.0228596 1.8109918 -3.3378601e-05 4284329216
-0.97736359 1.7552543 -0.00015258789 4284329216
-0.9609108 1.8111525 -3.3378601e-05 4284329216
-0.91252136 1.6429849 -0.00015258789 4284329216
-0.91661358 1.691298 -0.00015258789 4284329216
-0.85554695 1.6411376 -0.00015258789 4284329216
-0.85819912 1.69274 -0.00015258789 4284329216
-0.90515614 1.7512789 -0.00015258789 4284329216
-0.90115452 1.8081083 -0.00015258789 4284329216
-0.8562088 1.7629676 -0.00015258789 4284329216
-0.8491497 1.8038149 -0.00015258789 4284329216
-1.0218019 1.8681808 -3.3378601e-05 4284329216
-1.0273561 1.9247422 -3.3378601e-05 4284329216
-0.96896648 1.8708439 -0.00015258789 4284329216
-0.96467972 1.9219112 -3.3378601e-05 4284329216
-1.0109959 1.9746647 -0.00015258789 4284329216
-1.0180798 2.043479 -3.3378601e-05 4284329216
-0.96693707 1.9817033 -3.3378601e-05 4284329216
-0.96717834 2.0339723 -0.00015258789 4284329216
-0.90651321 1.8650537 -0.00015258789 4284329216
-0.90822411 1.9206986 -3.3378601e-05 4284329216
-0.86534595 1.8601999 -3.3378601e-05 4284329216
-0.85638714 1.9212775 -0.00015258789 4284329216
-0.92252731 1.9765167 -3.3378601e-05 4284329216
-0.90443707 2.0400734 -0.00015258789 4284329216
-0.84985828 1.9762549 -0.00015258789 4284329216
-0.85560417 2.0420537 -0.00015258789 4284329216
-0.7992239 1.1900558 -0.00015258789 4284329216
-0.79741764 1.2567067 -3.3378601e-05 4284329216
-0.74101543 1.1949658 -3.3378601e-05 4284329216
-0.73468971 1.2542295 -3.3378601e-05 4284329216
-0.7853508 1.3041425 -3.3378601e-05 4284329216
-0.79586887 1.3546834 -3.3378601e-05 4284329216
-0.7467041 1.2989554 -3.3378601e-05 4284329216
-0.74629688 1.3658752 -3.3378601e-05 4284329216
-0.67719269 1.1935568 -0.00015258789 4284329216
-0.68873024 1.2523584 -3.3378601e-05 4284329216
-0.63650799 1.197587 -3.3378601e-05 4284329216
-0.63010406 1.2519441 -0.00015258789 4284329216
-0.69243908 1.3138895 -0.00015258789 4284329216
